-39 130 667
-39 130 668
-40 130 665
-40 130 669
-40 130 669
-41 130 668
-41 130 668
-42 130 669
-42 130 670
-41 131 675
-43 130 669
-42 131 677
-42 131 677
-47 128 656
-48 128 654
-46 130 665
-46 130 669
-46 130 667
-47 130 668
-47 130 669
-47 130 669
-47 130 670
-48 130 668
-44 124 591
-43 124 596
-43 124 596
-45 123 589
-46 123 587
-46 123 588
-46 124 591
-46 123 589
-47 123 590
-47 124 591
-47 124 591
-47 124 592
-48 124 591
-48 124 591
-47 124 596
-48 124 597
-56 119 565
-56 120 568
-51 123 589
-51 124 591
-51 123 590
-51 124 591
-52 124 592
-52 124 592
-52 124 593
-53 124 592
-53 123 590
-54 124 591
-54 124 592
-53 124 596
-55 123 589
-55 124 592
-55 124 592
-56 123 591
-56 124 592
-56 124 593
-57 124 593
-58 123 590
-58 124 593
-58 123 592
-58 124 592
-59 124 593
-58 124 597
-62 122 584
-62 122 586
-60 123 592
-61 124 593
-61 124 593
-61 124 594
-61 124 595
-63 123 592
-62 124 594
-63 124 593
-63 124 594
-63 124 594
-63 124 598
-65 123 592
-65 124 594
-65 124 594
-65 124 594
-66 124 595
-66 124 595
-66 124 596
-67 124 595
-67 124 596
-68 124 595
-68 124 595
-68 124 596
-68 125 600
-68 125 601
-82 117 561
-82 117 563
-70 124 596
-71 124 597
-71 124 597
-71 124 598
-72 124 597
-72 124 598
-73 124 597
-73 124 597
-73 124 598
-73 125 602
-73 125 603
-75 124 597
-75 124 598
-75 124 598
-75 124 599
-76 124 600
-76 124 600
-77 124 599
-77 124 600
-77 124 599
-78 124 600
-78 124 601
-77 125 604
-78 125 605
-78 125 606
-81 123 595
-82 123 595
-80 124 602
-81 124 602
-81 124 603
-81 124 602
-82 124 603
-82 124 602
-83 124 603
-83 124 603
-82 125 607
-83 125 607
-84 124 604
-85 124 603
-85 124 604
-83 123 589
-84 123 590
-84 123 591
-84 123 590
-85 123 591
-85 123 590
-86 123 591
-86 123 592
-85 124 594
-86 124 595
-87 124 592
-86 124 596
-93 121 582
-93 121 582
-89 124 594
-89 124 594
-89 124 594
-90 124 595
-90 124 594
-90 124 595
-91 124 596
-90 124 598
-91 124 599
-92 124 597
-91 125 600
-91 125 600
-93 124 597
-94 124 598
-94 124 598
-94 124 598
-95 124 599
-95 124 599
-96 124 599
-96 124 600
-95 125 602
-96 125 603
-97 124 601
-96 125 604
-97 125 605
-100 123 599
-100 124 599
-99 124 603
-99 124 603
-100 124 604
-100 124 604
-100 124 598
-100 124 598
-100 124 600
-100 124 600
-101 124 599
-101 124 600
-101 125 602
-101 125 603
-103 124 601
-103 124 601
-104 124 601
-104 124 603
-104 124 603
-105 124 603
-105 125 604
-105 125 605
-105 125 606
-106 125 605
-107 125 606
-107 126 615
-107 126 616
-108 126 616
-107 125 610
-95 133 647
52 117 543
52 117 543
45 125 603
18 126 623
18 126 624
17 125 605
17 127 625
17 127 626
16 126 624
15 125 606
16 125 608
16 125 609
15 125 608
16 126 611
15 126 611
14 125 607
11 124 602
12 125 605
11 124 603
12 127 625
11 125 604
10 124 603
12 127 628
10 126 624
12 127 629
11 127 630
24 133 671
-10 117 559
-6 119 574
8 126 623
7 126 622
7 126 622
7 126 623
6 126 624
5 126 620
5 126 623
5 126 624
4 126 622
5 127 625
4 126 624
2 125 618
2 126 621
3 126 623
2 126 622
2 126 623
1 126 623
0 126 620
0 126 623
0 126 623
0 126 622
0 126 623
0 126 623
2 128 633
-5 124 607
-4 125 613
-2 126 622
-2 126 624
-2 126 623
-4 126 619
-4 126 620
-4 126 623
-4 126 624
-5 126 622
-5 126 623
-5 126 624
-5 126 624
-6 126 622
-6 126 622
-7 126 622
-7 126 623
-7 126 623
-9 126 620
-9 126 620
-9 126 623
-9 126 622
-10 124 603
-10 125 604
-10 125 605
-10 125 605
-20 120 572
-19 121 578
-12 124 603
-12 124 604
-12 125 604
-14 124 601
-13 124 604
-13 125 604
-14 124 603
-14 124 603
-15 125 604
-15 125 605
-14 125 610
-16 124 602
-16 124 603
-17 124 603
-17 124 604
-18 124 600
-18 124 601
-18 124 604
-19 124 602
-19 124 603
-19 124 604
-19 125 604
-20 125 605
-19 125 610
-25 122 588
-24 123 594
-22 124 604
-22 125 604
-23 124 601
-23 124 603
-23 124 604
-24 124 603
-24 124 603
-24 124 604
-24 125 605
-23 125 610
-25 124 604
-26 124 602
-26 124 603
-26 124 604
-28 124 600
-28 124 601
-28 124 604
-28 124 602
-29 124 603
-29 124 604
-29 124 604
-29 125 605
-30 124 604
-30 124 604
-29 125 611
-59 109 512
-32 126 622
-35 129 661
-35 129 662
-35 130 665
-36 129 664
-36 129 664
-36 129 665
-36 130 666
-37 130 667
-37 129 665
-36 131 673
-39 129 663
-39 129 664
-40 129 661
-40 129 661
-40 129 665
-40 130 666
-41 129 664
-41 129 665
-42 129 665
-42 130 666
-41 130 671
-43 129 665
-42 131 673
-42 131 674
-47 128 653
-47 127 651
-46 129 662
-45 129 665
-46 129 663
-46 129 664
-47 129 665
-47 129 666
-47 130 666
-48 129 665
-48 129 665
-47 130 672
-47 131 673
-50 129 663
-51 129 661
-51 129 662
-51 129 665
-51 129 663
-52 129 664
-52 129 665
-52 129 666
-52 130 667
-48 123 588
-47 124 592
-47 124 593
-48 124 594
-56 119 562
-56 119 565
-51 123 586
-50 123 589
-51 123 587
-51 123 588
-51 123 589
-52 123 589
-53 123 586
-53 123 589
-53 123 588
-53 123 588
-54 123 589
-55 122 586
-55 123 587
-55 123 589
-55 123 589
-56 123 588
-56 123 589
-56 123 590
-56 123 590
-58 123 587
-57 123 590
-58 123 589
-58 123 589
-58 123 590
-58 124 594
-61 122 581
-61 122 583
-60 123 589
-60 123 590
-61 123 590
-61 123 591
-61 123 592
-62 123 589
-62 123 591
-63 123 590
-63 123 591
-63 123 591
-63 124 595
-65 123 589
-65 123 591
-65 123 591
-65 123 591
-65 123 592
-66 123 593
-66 123 593
-67 123 592
-67 123 593
-67 123 592
-68 123 592
-68 123 593
-67 124 597
-68 124 598
-82 116 558
-81 117 560
-70 123 593
-70 123 594
-70 123 594
-71 123 595
-71 123 594
-72 123 595
-72 123 594
-73 123 594
-73 123 595
-72 124 599
-72 124 600
-74 123 594
-75 123 595
-75 123 595
-75 123 596
-75 124 597
-76 124 597
-76 123 596
-76 124 597
-77 123 596
-77 123 597
-78 124 598
-77 124 601
-77 124 602
-78 124 603
-81 122 592
-81 123 592
-80 124 599
-80 124 599
-80 124 600
-81 124 599
-81 124 600
-82 124 599
-82 124 600
-83 124 600
-82 124 604
-82 124 604
-84 124 601
-84 124 600
-85 124 601
-85 124 601
-85 124 602
-85 124 603
-86 124 602
-86 124 603
-87 124 602
-87 124 603
-87 124 604
-87 125 607
-87 125 607
-89 124 604
-88 125 609
-95 121 592
-95 122 593
-90 124 605
-91 124 606
-91 124 606
-91 124 607
-92 124 606
-92 124 607
-93 124 607
-92 125 610
-92 125 611
-94 124 608
-93 125 612
-93 123 593
-93 123 594
-93 123 595
-93 123 595
-94 123 595
-94 123 596
-95 123 596
-95 123 596
-95 124 597
-95 124 599
-95 124 600
-97 124 598
-96 124 601
-96 124 602
-100 123 596
-100 123 596
-99 124 600
-99 124 600
-99 124 601
-100 124 601
-100 124 602
-100 124 602
-100 124 604
-100 124 604
-102 124 603
-101 125 606
-101 125 606
-102 125 607
-104 124 605
-104 124 605
-105 124 605
-104 124 607
-105 124 607
-105 124 607
-106 124 608
-105 125 609
-106 125 610
-107 125 609
-107 125 610
-107 125 612
-107 125 613
-107 125 613
-106 125 607
-81 144 713
52 116 540
52 116 541
17 126 620
16 124 600
16 124 601
15 124 601
16 124 604
17 126 624
16 126 625
16 125 606
16 127 627
16 127 628
11 125 615
14 125 607
12 124 601
11 124 600
11 124 603
11 124 601
11 126 621
11 126 622
11 126 625
11 126 626
11 127 627
24 133 668
-10 116 556
-6 118 572
8 126 620
7 125 619
7 125 619
6 126 620
6 126 621
5 125 617
5 126 620
4 125 618
5 126 621
4 125 620
4 126 620
1 124 612
3 125 619
3 126 620
2 125 619
2 125 619
1 126 620
0 125 616
0 125 617
0 126 620
0 125 619
0 125 619
0 126 620
2 127 630
-5 123 606
-4 124 610
-2 125 618
-2 125 619
-2 125 620
-4 125 616
-4 125 617
-4 125 620
-4 125 618
-5 125 619
-5 125 620
-5 126 620
-5 126 621
-6 125 618
-6 125 619
-7 125 619
-7 125 619
-7 125 620
-9 125 616
-9 125 617
-9 125 620
-9 125 618
-10 125 619
-10 125 620
-10 126 621
-9 126 626
-20 120 586
-14 124 609
-12 125 619
-12 125 620
-12 126 620
-14 125 617
-13 125 619
-14 125 620
-14 125 619
-15 125 619
-15 125 620
-15 126 621
-14 126 627
-16 125 618
-17 125 618
-17 124 600
-17 124 601
-18 123 597
-18 123 598
-18 124 601
-19 124 599
-19 124 600
-19 124 601
-19 124 601
-20 124 602
-18 125 607
-23 122 591
-24 122 591
-21 124 601
-22 124 601
-23 123 598
-23 124 600
-23 124 601
-24 124 600
-24 124 600
-24 124 601
-24 124 602
-23 125 607
-25 124 601
-26 124 599
-26 124 600
-26 124 600
-28 123 597
-28 123 598
-27 124 601
-28 124 599
-28 124 600
-29 124 601
-29 124 601
-29 124 602
-30 124 601
-30 124 601
-29 125 608
-59 109 510
-31 124 601
-32 123 598
-33 123 598
-32 124 601
-33 124 600
-33 124 600
-33 124 601
-34 124 602
-33 124 606
-35 124 601
-33 125 607
-36 123 599
-36 124 600
-37 123 598
-37 123 598
-37 124 601
-37 124 602
-38 124 600
-38 124 601
-38 124 601
-39 125 621
-39 126 625
-40 125 620
-41 130 669
-42 130 670
-46 127 649
-47 127 647
-45 128 658
-45 129 661
-46 128 660
-46 129 660
-46 129 661
-47 129 662
-47 129 663
-48 129 661
-48 129 662
-47 130 669
-47 130 669
-50 128 659
-50 128 657
-51 128 658
-50 129 661
-51 128 660
-51 129 661
-52 129 661
-52 129 662
-52 129 663
-53 129 661
-52 130 668
-52 130 668
-53 130 669
-62 123 625
-61 124 630
-56 128 658
-56 129 662
-56 128 660
-57 129 661
-57 129 662
-57 129 662
-58 128 658
-58 129 662
-59 128 660
-59 128 661
-59 129 661
-61 128 657
-61 128 658
-61 128 661
-61 128 660
-62 128 661
-62 129 661
-62 129 662
-62 129 663
-64 128 659
-63 129 662
-64 128 660
-64 128 661
-65 129 662
-64 129 668
-61 121 578
-61 121 580
-60 122 586
-60 122 587
-60 122 587
-61 123 588
-61 123 589
-62 122 586
-62 123 588
-62 122 587
-63 122 588
-63 123 589
-62 123 593
-64 122 586
-64 122 588
-65 122 588
-65 122 588
-65 123 589
-65 123 590
-66 123 590
-66 123 589
-67 123 590
-67 122 589
-67 123 590
-68 123 590
-67 123 594
-67 123 595
-82 116 556
-78 118 564
-70 123 590
-70 123 591
-70 123 591
-70 123 592
-71 123 591
-71 123 592
-72 123 591
-72 123 592
-72 123 592
-72 123 596
-72 124 597
-74 123 591
-74 123 592
-74 123 592
-75 123 593
-75 123 594
-75 123 594
-76 123 593
-77 123 593
-77 123 593
-77 123 594
-77 123 595
-77 124 598
-77 124 599
-77 124 600
-81 122 589
-81 122 590
-80 123 596
-80 123 596
-80 123 597
-81 123 596
-81 123 597
-82 123 596
-82 123 597
-82 123 597
-82 124 601
-82 124 601
-83 123 598
-84 123 597
-84 123 598
-85 123 598
-85 123 599
-85 123 600
-86 123 599
-86 123 600
-87 123 599
-87 123 600
-87 123 601
-87 124 604
-87 124 604
-88 123 601
-87 124 606
-94 121 589
-91 123 597
-90 124 602
-90 124 603
-91 124 603
-91 124 604
-92 124 603
-92 124 604
-92 124 604
-92 124 607
-92 124 608
-93 124 605
-92 124 609
-94 124 605
-95 124 606
-95 124 606
-95 124 607
-96 124 607
-96 124 608
-97 124 607
-97 124 608
-97 124 609
-97 124 611
-97 125 612
-98 124 610
-98 125 613
-98 125 614
-102 123 607
-100 122 594
-98 123 597
-99 123 597
-99 123 598
-99 123 598
-100 123 599
-100 123 599
-100 124 601
-100 124 602
-101 123 600
-101 124 603
-101 124 603
-101 124 604
-103 123 602
-103 124 602
-104 124 603
-104 124 604
-105 124 604
-105 124 604
-105 124 605
-105 124 606
-105 124 607
-106 124 606
-107 124 607
-106 124 609
-106 125 610
-107 125 610
-107 125 611
-82 144 721
53 116 545
52 116 545
52 116 546
21 111 429
21 111 430
18 110 423
17 125 617
16 125 616
16 124 600
15 123 598
16 124 601
15 124 599
16 124 602
15 124 603
15 124 604
16 126 625
11 124 612
15 126 623
12 125 617
11 125 616
12 125 619
11 125 617
11 125 618
11 125 619
11 126 621
11 126 623
11 124 604
24 132 664
-10 116 553
4 123 605
8 125 617
7 125 615
7 125 616
6 125 617
6 125 617
5 124 614
5 125 617
4 125 615
5 125 618
4 125 616
4 125 617
1 124 609
3 125 616
2 125 617
2 125 616
2 125 616
1 125 617
0 124 613
1 125 618
1 125 621
0 125 615
0 125 616
0 125 617
1 126 626
-4 123 606
-4 123 607
-2 125 615
-2 125 616
-2 125 618
-4 124 613
-4 124 614
-4 125 616
-4 125 615
-5 125 616
-5 125 616
-5 125 617
-5 125 618
-6 125 615
-6 125 616
-7 125 615
-7 125 616
-7 125 617
-9 124 613
-9 124 614
-9 125 617
-9 125 615
-10 125 616
-10 125 617
-10 125 617
-9 126 622
-20 120 583
-14 123 606
-12 125 616
-12 125 616
-14 124 613
-14 124 613
-13 125 616
-14 124 615
-14 125 615
-15 125 616
-15 125 617
-15 125 618
-14 126 623
-16 125 615
-17 125 615
-17 125 616
-17 125 617
-18 124 613
-19 124 614
-18 125 617
-19 125 615
-19 125 616
-19 125 616
-20 125 617
-20 125 618
-19 126 623
-24 123 606
-24 123 606
-22 125 616
-22 125 617
-23 124 613
-23 125 616
-23 125 617
-24 125 615
-24 125 616
-24 125 617
-25 125 617
-24 126 623
-25 123 598
-26 123 596
-26 123 597
-26 123 597
-27 123 594
-28 123 595
-27 123 598
-28 123 596
-28 123 597
-29 123 598
-29 123 598
-29 123 599
-30 123 598
-28 124 604
-29 124 605
-59 108 507
-31 123 597
-32 123 595
-32 123 597
-32 123 598
-33 123 597
-33 123 597
-33 123 598
-34 123 599
-33 124 603
-34 123 598
-33 124 604
-36 123 596
-36 123 597
-37 123 595
-37 123 595
-37 123 598
-37 123 596
-38 123 597
-38 123 598
-38 123 598
-38 123 599
-39 123 598
-39 123 598
-38 124 604
-38 124 605
-43 122 589
-44 121 587
-42 123 596
-42 123 598
-42 123 597
-42 123 598
-43 123 598
-43 123 599
-43 123 600
-44 123 598
-43 124 604
-43 124 604
-43 124 605
-46 123 597
-46 123 596
-47 123 596
-48 125 617
-48 124 616
-48 124 616
-51 128 658
-52 128 658
-49 125 618
-53 128 658
-52 129 664
-52 129 665
-52 129 665
-62 123 622
-61 123 626
-55 128 657
-55 128 658
-56 128 656
-56 128 657
-57 128 658
-57 128 659
-58 127 655
-58 128 658
-59 128 656
-59 128 657
-59 128 658
-60 127 654
-61 127 655
-60 128 657
-61 128 656
-61 128 657
-62 128 658
-62 128 658
-62 128 659
-63 128 658
-63 128 658
-64 128 657
-64 128 658
-64 128 658
-64 129 664
-68 126 646
-68 126 648
-66 128 657
-67 128 657
-67 128 658
-67 128 659
-67 128 660
-68 128 658
-68 128 659
-69 128 657
-69 128 658
-70 128 659
-62 123 590
-64 122 584
-64 122 585
-64 122 585
-65 122 585
-65 122 586
-65 122 587
-65 122 587
-66 122 586
-67 122 585
-67 122 586
-67 122 587
-67 122 587
-67 123 591
-67 123 592
-81 115 553
-77 117 561
-69 122 587
-70 122 588
-70 122 589
-70 122 589
-71 122 588
-71 122 587
-72 122 588
-72 122 589
-72 122 589
-72 123 593
-72 123 594
-74 122 588
-74 122 589
-74 122 589
-74 122 590
-75 122 591
-75 122 591
-76 122 591
-76 122 590
-76 122 590
-77 122 591
-77 122 592
-76 123 595
-77 123 596
-77 123 597
-80 121 586
-81 121 587
-79 122 593
-79 122 593
-80 123 594
-80 122 593
-81 122 593
-81 122 593
-82 122 594
-82 123 594
-81 123 598
-83 122 594
-83 123 595
-84 122 594
-84 122 595
-84 123 595
-84 123 596
-85 122 594
-85 123 596
-86 123 596
-86 123 596
-86 123 597
-87 123 598
-86 123 601
-88 123 598
-88 123 598
-87 124 603
-94 120 587
-91 122 594
-89 123 599
-90 123 600
-90 123 600
-90 123 601
-91 123 600
-91 123 601
-92 123 601
-91 124 604
-92 124 605
-93 123 602
-92 124 606
-94 123 602
-94 123 603
-95 123 603
-95 123 604
-95 123 604
-96 123 605
-96 123 604
-96 123 605
-97 123 606
-96 124 608
-97 124 609
-98 124 607
-97 124 610
-97 124 611
-101 123 604
-101 123 604
-100 124 608
-100 124 609
-101 124 610
-101 124 609
-102 124 610
-102 124 611
-102 124 612
-102 124 613
-103 124 612
-102 124 614
-103 125 615
-103 125 616
-105 124 613
-105 124 614
-106 124 614
-106 124 615
-107 124 615
-107 124 616
-107 124 616
-107 125 618
-107 125 618
-108 124 618
-108 125 620
-108 125 620
-108 125 621
-106 124 607
-106 124 608
-82 143 717
56 118 572
59 121 608
22 111 433
19 110 427
19 110 428
23 127 631
16 124 612
17 124 615
18 128 655
17 128 656
16 124 615
15 123 599
14 123 596
16 125 622
14 125 617
15 125 620
12 124 614
11 124 613
11 124 613
11 124 614
11 124 615
11 125 618
10 124 614
11 125 619
11 125 620
23 131 660
-10 115 551
5 126 642
7 124 614
7 124 612
7 124 615
6 124 614
6 124 614
5 124 611
5 124 613
4 124 612
5 124 615
4 124 613
4 125 616
1 123 606
3 124 613
2 124 614
2 124 612
2 124 613
1 124 614
0 124 610
0 124 613
0 124 614
0 122 594
0 123 594
0 123 595
0 123 596
-4 123 603
-1 124 613
-2 124 612
-2 124 613
-2 124 613
-4 124 610
-4 124 610
-4 124 613
-4 124 612
-5 124 612
-5 124 613
-5 124 614
-5 124 615
-6 124 612
-6 124 613
-7 124 612
-7 124 613
-7 124 614
-9 124 610
-8 124 613
-9 124 614
-9 124 612
-10 124 613
-10 124 613
-10 124 614
-9 125 619
-20 119 580
-14 123 603
-12 124 613
-12 124 613
-14 124 610
-14 124 610
-13 124 613
-14 124 612
-14 124 612
-14 124 613
-15 124 614
-15 124 614
-14 125 620
-16 124 612
-17 124 612
-17 124 613
-17 124 613
-18 124 610
-19 124 610
-18 124 613
-19 124 612
-19 124 613
-19 124 613
-20 124 614
-19 125 619
-19 125 620
-24 122 603
-24 123 603
-22 124 613
-23 123 609
-23 124 610
-23 124 613
-23 124 614
-24 124 612
-24 124 613
-24 124 613
-25 124 614
-24 125 619
-26 124 613
-26 124 612
-27 124 612
-27 124 613
-28 123 610
-28 124 610
-28 124 613
-29 124 612
-29 124 612
-29 124 613
-29 124 614
-29 124 614
-30 124 613
-29 125 620
-59 108 515
-60 109 516
-32 124 613
-32 122 592
-32 122 594
-32 123 595
-33 122 594
-33 122 594
-33 122 595
-33 123 596
-33 123 600
-34 122 595
-33 123 601
-36 122 593
-36 122 594
-37 122 592
-37 122 592
-37 122 595
-37 122 594
-38 122 594
-38 122 595
-38 123 595
-38 123 596
-39 122 595
-39 122 595
-38 123 601
-38 123 602
-43 121 586
-43 121 584
-42 122 593
-41 122 595
-42 122 594
-42 122 595
-43 122 595
-43 123 596
-43 123 597
-44 122 595
-43 123 601
-43 123 601
-45 122 594
-45 122 594
-46 122 593
-46 122 593
-46 122 596
-47 122 595
-47 122 595
-47 122 596
-48 123 597
-48 123 597
-48 122 596
-48 123 601
-48 123 602
-48 123 602
-56 119 572
-56 119 572
-51 122 596
-51 123 597
-52 122 595
-52 122 596
-52 123 597
-52 123 597
-53 122 594
-53 122 597
-54 122 595
-54 122 596
-54 122 597
-57 123 611
-57 123 612
-60 127 654
-61 127 653
-61 127 653
-61 127 654
-62 127 655
-62 127 656
-63 127 654
-63 127 655
-64 127 653
-64 127 654
-64 127 655
-63 128 660
-67 125 642
-67 126 644
-66 127 653
-66 127 654
-67 127 655
-67 127 655
-67 127 656
-68 127 655
-68 127 655
-69 127 654
-69 127 655
-69 127 655
-69 128 661
-71 127 652
-71 127 654
-71 127 654
-72 127 655
-72 127 656
-72 127 656
-72 127 657
-73 127 656
-74 127 654
-74 127 655
-74 127 656
-75 127 656
-74 128 662
-74 128 664
-89 119 604
-78 126 646
-77 127 656
-77 127 657
-77 127 657
-78 127 658
-78 127 657
-79 127 655
-79 127 656
-80 127 657
-80 127 658
-79 128 663
-80 128 664
-81 127 656
-82 127 657
-74 122 587
-74 122 587
-74 122 588
-75 122 588
-75 122 588
-76 121 587
-76 122 588
-76 122 588
-77 122 589
-76 122 592
-76 122 593
-76 123 594
-80 121 583
-79 122 589
-79 122 590
-79 122 590
-79 122 591
-80 122 590
-81 122 590
-81 122 590
-81 122 591
-81 122 592
-81 123 595
-82 122 591
-83 122 592
-83 122 591
-84 122 592
-84 122 593
-84 122 593
-85 122 592
-85 122 593
-86 122 593
-86 122 593
-86 122 594
-86 122 595
-86 123 598
-87 122 595
-87 122 595
-87 123 600
-93 120 584
-89 122 596
-89 122 596
-89 122 597
-90 122 597
-90 122 597
-91 122 597
-91 122 598
-91 122 598
-91 123 601
-92 122 599
-92 123 599
-92 123 603
-94 122 599
-94 122 600
-94 123 600
-94 123 601
-95 123 601
-95 123 601
-96 123 601
-96 123 602
-96 123 603
-96 123 605
-97 123 603
-98 123 604
-97 124 607
-97 124 607
-101 122 601
-101 122 601
-100 123 605
-100 123 606
-100 123 606
-101 123 606
-101 123 607
-101 123 608
-101 124 609
-101 124 610
-103 123 609
-102 124 611
-102 124 612
-104 123 609
-105 123 610
-105 123 611
-105 123 611
-105 124 612
-106 123 612
-106 124 612
-107 124 613
-106 124 615
-107 124 615
-108 124 614
-107 124 617
-108 124 617
-108 124 618
-108 125 619
-106 123 605
-82 141 706
53 116 547
53 116 548
17 124 610
16 122 593
16 122 594
15 122 592
15 122 593
15 122 593
15 123 596
14 122 593
15 124 614
15 124 615
15 124 616
17 128 661
14 127 652
13 127 653
12 127 651
12 125 631
11 123 595
10 124 610
10 124 611
11 124 616
12 128 659
25 134 704
-10 117 581
4 122 599
7 124 610
7 123 609
7 124 612
7 127 651
5 123 607
5 123 607
5 124 610
5 127 650
5 127 651
5 127 651
5 127 655
1 122 603
3 123 610
2 123 609
2 123 609
1 123 610
1 124 611
0 123 607
0 123 610
0 124 611
0 123 609
0 123 610
0 124 610
0 127 652
-4 122 600
-1 123 610
-2 123 609
-2 123 610
-2 124 610
-4 123 607
-4 123 607
-4 123 610
-4 123 609
-5 123 609
-5 123 610
-5 124 611
-5 124 611
-6 123 609
-6 123 609
-7 123 609
-7 123 610
-7 124 610
-9 123 607
-8 123 610
-9 124 610
-9 123 609
-10 123 610
-10 123 610
-10 124 611
-9 124 616
-20 119 577
-14 122 600
-12 123 609
-12 123 610
-13 123 606
-14 123 607
-13 123 610
-14 123 608
-14 123 609
-14 123 610
-15 123 611
-15 124 611
-14 124 617
-16 123 609
-17 123 609
-17 123 610
-17 123 610
-18 123 607
-19 123 607
-18 123 610
-19 123 609
-19 123 609
-19 123 610
-20 124 611
-19 124 616
-19 124 617
-24 122 600
-24 122 600
-22 123 610
-23 123 606
-23 123 607
-23 123 610
-24 123 608
-24 123 609
-24 123 610
-24 123 610
-24 124 611
-25 123 610
-25 123 610
-26 123 608
-26 123 609
-27 123 610
-28 123 607
-28 123 607
-28 123 610
-29 123 609
-29 123 609
-29 123 610
-29 123 611
-29 124 611
-30 123 610
-29 124 617
-59 108 513
-59 108 514
-32 123 610
-33 123 607
-32 123 610
-33 123 610
-33 123 609
-34 123 610
-34 123 610
-34 123 611
-33 124 615
-35 123 610
-34 124 617
-36 123 608
-36 123 609
-37 123 606
-38 123 607
-37 123 610
-38 123 609
-38 123 609
-39 123 610
-39 123 611
-39 123 611
-40 123 610
-40 123 610
-39 124 617
-39 124 617
-43 122 600
-42 123 607
-41 121 590
-41 122 592
-42 122 591
-42 122 592
-42 122 592
-43 122 593
-43 122 594
-43 122 592
-43 123 598
-43 123 598
-45 122 591
-45 122 591
-46 121 590
-46 122 592
-46 122 593
-47 122 592
-47 122 592
-47 122 593
-47 122 594
-47 122 597
-48 122 593
-47 123 598
-48 123 598
-48 123 599
-56 118 569
-56 118 569
-50 122 593
-51 122 592
-51 122 592
-52 122 593
-52 122 594
-52 122 594
-53 122 593
-53 122 594
-54 122 592
-54 122 593
-54 122 594
-55 121 591
-55 121 591
-55 122 594
-56 122 593
-56 122 593
-56 122 594
-57 122 595
-57 122 595
-58 122 594
-58 122 595
-58 122 593
-59 122 594
-59 122 595
-58 123 599
-62 120 586
-62 121 587
-61 122 594
-62 123 612
-63 123 612
-63 123 613
-63 123 614
-64 123 612
-68 126 652
-68 126 650
-69 126 651
-69 126 652
-68 127 657
-70 126 649
-70 126 651
-71 126 650
-71 126 651
-71 126 652
-72 127 653
-72 127 654
-73 126 652
-73 126 651
-74 126 651
-74 126 652
-74 127 653
-74 127 658
-74 128 660
-88 118 601
-78 125 643
-76 126 652
-77 126 653
-77 127 654
-77 127 655
-78 126 653
-79 126 652
-79 126 653
-79 126 653
-79 127 659
-79 127 659
-79 127 660
-81 126 653
-81 126 653
-82 126 654
-82 127 655
-82 127 655
-82 127 656
-83 127 655
-84 126 653
-84 126 654
-84 127 655
-85 127 656
-84 127 661
-84 128 662
-85 128 663
-88 125 647
-87 127 656
-79 121 587
-79 121 588
-80 121 586
-80 121 587
-80 121 587
-81 121 587
-81 121 588
-81 121 589
-81 122 592
-82 121 589
-82 121 589
-83 121 588
-83 121 589
-83 121 590
-84 121 590
-85 121 589
-85 121 590
-85 121 590
-85 121 591
-86 121 591
-86 122 592
-85 122 595
-87 122 592
-87 122 593
-93 119 580
-93 119 581
-88 122 593
-89 122 594
-89 122 594
-89 122 594
-90 122 594
-90 122 594
-91 122 595
-91 122 595
-90 122 598
-92 122 596
-92 122 596
-91 123 600
-93 122 596
-93 122 597
-94 122 597
-95 122 597
-94 122 598
-95 122 598
-95 122 598
-96 122 599
-96 122 600
-96 123 602
-97 122 600
-97 122 601
-96 123 604
-97 123 604
-99 121 591
-99 121 592
-98 122 595
-98 122 596
-99 122 595
-99 122 596
-100 122 597
-100 122 597
-100 122 599
-100 122 600
-101 122 599
-102 123 608
-102 123 609
-104 123 606
-104 123 607
-104 123 608
-105 123 608
-105 123 609
-106 123 609
-106 123 609
-106 123 610
-106 123 612
-106 123 612
-107 123 611
-107 124 613
-107 124 614
-107 124 615
-108 124 615
-108 124 616
-81 140 690
53 115 545
52 115 545
18 124 626
18 125 627
17 124 626
17 124 626
17 125 627
16 125 628
16 125 628
15 125 627
17 125 633
16 125 631
14 122 594
13 125 627
13 125 627
13 125 628
12 126 648
12 126 648
13 127 652
11 126 647
11 126 648
12 127 654
12 127 655
12 127 656
-10 116 578
8 126 645
8 126 648
7 126 646
8 126 650
7 126 648
6 126 646
5 126 645
6 126 648
5 126 646
5 126 647
5 126 648
4 126 648
4 126 649
3 126 647
2 126 646
2 126 647
2 126 648
2 126 648
0 126 644
1 126 647
1 126 648
0 126 647
0 126 647
0 126 648
0 126 649
-4 125 636
-1 126 647
-2 126 646
-2 126 647
-2 126 648
-4 126 644
-4 126 645
-3 126 648
-4 126 646
-4 126 647
-5 126 648
-5 126 648
-5 126 649
-6 126 646
-7 123 605
-7 126 647
-7 126 647
-7 126 648
-9 126 644
-8 123 607
-9 123 607
-9 123 606
-10 123 606
-10 123 607
-10 123 608
-18 119 579
-20 118 574
-12 123 606
-12 123 606
-12 123 607
-13 122 603
-14 122 604
-13 123 607
-14 123 605
-14 123 606
-14 123 607
-15 123 607
-15 123 608
-14 124 614
-16 123 605
-17 123 606
-17 123 606
-17 123 607
-18 122 604
-18 123 606
-18 123 607
-19 123 606
-19 123 606
-19 123 607
-19 123 608
-19 124 613
-19 124 614
-24 121 597
-21 123 606
-22 123 607
-23 122 603
-23 122 604
-23 123 607
-24 122 605
-24 123 606
-24 123 607
-24 123 607
-24 123 608
-25 123 606
-25 123 607
-26 122 605
-26 123 606
-27 123 607
-28 122 603
-28 122 604
-28 123 607
-28 122 605
-29 123 606
-29 123 607
-29 123 607
-28 123 612
-30 123 607
-29 124 614
-59 108 511
-59 108 511
-32 122 603
-33 122 604
-32 123 607
-33 123 607
-33 122 606
-33 123 606
-34 123 607
-34 123 608
-35 123 606
-35 123 607
-34 124 613
-36 122 605
-36 122 606
-37 122 603
-37 122 604
-37 123 607
-38 122 605
-38 123 606
-38 123 607
-39 123 607
-39 123 608
-40 123 607
-40 123 607
-39 124 613
-39 124 614
-43 121 597
-42 122 604
-42 122 604
-42 123 607
-43 122 606
-43 123 606
-43 123 607
-43 123 608
-43 123 611
-44 123 607
-43 123 613
-44 124 613
-46 122 605
-47 122 604
-47 122 604
-47 123 607
-47 123 608
-48 122 606
-47 121 589
-47 121 590
-47 121 591
-47 122 594
-48 121 590
-47 122 595
-47 122 595
-48 122 596
-56 117 566
-56 118 567
-50 121 590
-51 121 589
-51 121 589
-51 121 590
-52 121 591
-52 121 591
-53 121 590
-53 121 591
-53 121 590
-54 121 590
-54 121 591
-55 121 588
-55 121 588
-55 121 591
-56 121 590
-56 121 590
-56 121 591
-56 121 592
-57 121 592
-57 121 591
-58 121 590
-58 121 591
-58 121 591
-59 121 592
-58 122 596
-62 120 583
-62 120 584
-60 121 591
-61 121 591
-61 121 592
-61 121 593
-61 121 593
-62 121 592
-63 121 591
-63 121 592
-63 121 592
-63 121 593
-63 122 597
-65 121 591
-65 121 592
-65 121 592
-65 121 593
-66 121 593
-66 121 594
-66 122 595
-67 121 594
-67 121 593
-68 121 593
-68 121 594
-68 121 595
-68 122 599
-68 122 600
-82 115 557
-70 121 594
-72 123 611
-72 123 612
-77 126 650
-77 126 651
-77 126 650
-78 126 648
-78 126 649
-79 126 650
-78 127 655
-78 127 656
-79 127 657
-81 126 649
-81 126 649
-81 126 650
-81 126 651
-82 126 652
-83 125 648
-83 126 651
-83 126 650
-84 126 651
-84 126 651
-83 127 656
-84 127 657
-84 127 658
-84 127 659
-88 125 643
-86 126 652
-87 126 653
-87 126 654
-88 126 650
-88 126 653
-89 126 652
-89 126 653
-89 126 653
-89 127 658
-89 127 659
-90 126 654
-91 126 655
-91 126 653
-92 126 654
-92 126 655
-92 126 656
-93 126 653
-93 126 656
-94 126 654
-94 126 655
-95 126 656
-94 127 660
-94 127 661
-96 126 657
-96 126 657
-102 123 638
-93 118 578
-88 121 590
-88 121 591
-89 121 589
-89 121 591
-90 121 591
-90 121 591
-90 121 592
-90 122 594
-90 122 595
-91 121 593
-92 121 593
-91 122 597
-93 121 593
-93 121 594
-93 121 594
-94 121 594
-94 121 595
-95 121 595
-95 121 595
-95 121 596
-95 122 598
-95 122 599
-96 122 597
-97 122 598
-96 122 601
-96 122 601
-100 121 595
-100 121 596
-99 122 598
-99 122 600
-100 122 600
-100 122 600
-100 122 601
-101 122 602
-100 122 603
-101 122 602
-102 122 603
-101 123 605
-101 123 606
-103 122 603
-104 122 604
-104 122 605
-104 122 605
-104 122 606
-105 122 606
-104 122 599
-105 122 600
-104 122 601
-105 122 602
-106 122 601
-105 122 603
-105 123 604
-106 123 605
-106 123 605
-106 123 606
52 115 542
52 115 543
22 124 623
22 124 626
16 121 584
18 124 624
17 124 625
17 124 623
16 124 624
16 124 624
17 124 627
17 125 628
15 122 592
16 125 630
15 125 629
13 124 623
15 125 633
12 124 625
12 124 623
12 124 626
12 124 627
10 124 623
10 124 624
12 125 629
11 125 630
11 125 631
-10 115 559
7 123 621
8 124 624
7 124 622
7 124 625
7 124 624
6 124 622
5 123 620
5 124 623
4 124 622
4 124 623
5 125 644
4 126 645
4 126 646
3 125 644
2 125 642
2 125 643
2 125 644
2 126 645
0 123 620
0 124 623
1 126 645
0 125 643
0 125 644
0 125 645
0 126 648
-4 124 633
-1 125 644
-2 125 643
-2 125 644
-2 125 644
-4 125 640
-4 125 641
-3 125 644
-4 125 643
-4 125 643
-5 125 644
-5 126 645
-8 124 636
-6 125 643
-7 125 642
-7 125 643
-7 125 644
-7 125 645
-9 125 641
-8 125 644
-9 125 642
-9 125 643
-10 122 603
-10 125 644
-10 126 645
-19 121 613
-21 120 607
-12 125 643
-12 125 643
-12 125 644
-14 125 640
-14 125 641
-14 125 644
-14 125 642
-15 125 643
-15 125 644
-15 125 645
-15 126 645
-14 126 652
-17 125 642
-17 125 643
-17 125 644
-18 125 644
-19 125 640
-19 125 643
-18 122 604
-19 122 603
-19 122 603
-19 122 604
-19 122 605
-18 123 609
-19 123 611
-23 121 594
-21 122 603
-22 122 604
-23 122 600
-23 122 601
-23 122 604
-23 122 602
-24 122 603
-24 122 603
-24 122 604
-24 122 605
-25 122 603
-25 122 604
-26 122 602
-26 122 603
-26 122 604
-28 122 600
-28 122 601
-28 122 604
-28 122 602
-29 122 603
-29 122 604
-29 122 604
-28 123 609
-30 122 604
-29 123 610
-59 107 509
-56 108 515
-32 121 600
-33 122 601
-32 122 603
-33 122 602
-33 122 603
-33 122 603
-34 122 604
-34 122 605
-35 122 603
-35 122 604
-34 123 610
-36 122 602
-36 122 603
-37 121 600
-37 122 601
-37 122 604
-38 122 602
-38 122 603
-38 122 604
-38 122 604
-39 122 605
-39 122 604
-40 122 604
-39 123 610
-43 120 594
-43 121 594
-42 122 601
-42 122 601
-42 122 604
-43 122 603
-43 122 603
-43 122 604
-43 122 605
-43 123 608
-44 122 604
-43 123 610
-44 123 610
-46 122 602
-47 121 601
-47 122 601
-47 122 604
-47 122 605
-47 122 603
-48 122 604
-48 122 605
-48 122 605
-48 123 608
-49 122 605
-48 123 610
-48 123 610
-49 123 611
-57 118 579
-53 120 594
-51 122 604
-52 122 603
-52 122 604
-52 122 604
-53 122 605
-53 122 606
-54 122 604
-54 122 605
-55 122 604
-55 122 605
-55 122 605
-56 121 602
-56 122 603
-56 122 605
-57 122 604
-57 122 605
-57 122 605
-56 121 589
-56 121 589
-57 121 588
-58 120 587
-58 121 588
-58 121 588
-58 121 589
-58 121 593
-61 119 580
-61 119 581
-60 120 588
-60 121 589
-61 121 589
-61 121 590
-61 121 590
-62 121 589
-62 120 588
-63 121 589
-63 121 589
-63 121 590
-63 121 594
-64 121 589
-64 121 589
-65 121 589
-65 121 590
-65 121 591
-66 121 591
-67 120 588
-66 121 591
-67 121 590
-67 121 590
-68 121 591
-67 121 595
-67 121 596
-67 122 597
-82 114 555
-70 121 591
-70 121 592
-70 121 592
-70 121 593
-71 121 590
-71 121 592
-72 121 591
-72 121 592
-72 121 593
-72 122 597
-72 122 597
-72 122 598
-74 121 592
-74 121 593
-75 121 593
-75 121 594
-75 121 595
-76 121 592
-78 122 611
-79 122 610
-79 122 611
-79 122 611
-79 123 615
-83 126 654
-84 126 655
-88 123 634
-87 124 640
-86 125 649
-86 125 649
-87 125 650
-88 125 647
-88 125 650
-88 125 648
-88 125 649
-89 125 650
-88 126 655
-89 126 655
-90 125 650
-90 125 651
-91 125 650
-91 125 650
-92 125 651
-92 125 652
-93 125 649
-93 125 652
-93 125 651
-94 125 652
-94 125 652
-94 126 657
-94 126 657
-95 125 653
-96 126 654
-101 122 634
-101 122 635
-97 126 654
-97 126 655
-98 125 652
-98 126 655
-99 125 654
-99 126 655
-99 126 656
-99 126 659
-99 126 660
-101 126 656
-101 126 657
-100 127 662
-102 126 656
-102 126 657
-103 126 658
-104 126 656
-94 121 592
-94 121 592
-94 121 593
-95 121 593
-94 121 595
-95 121 596
-96 121 594
-96 121 595
-95 122 598
-96 122 598
-99 120 592
-98 121 596
-99 121 595
-99 121 597
-99 121 597
-100 121 597
-100 121 598
-100 121 599
-100 122 600
-101 121 599
-101 121 600
-101 122 602
-101 122 603
-103 121 600
-103 121 601
-103 122 602
-104 122 602
-104 122 603
-105 122 603
-105 122 603
-105 122 604
-105 122 605
-105 122 606
-106 122 605
-106 122 607
-106 122 608
-106 123 609
-107 123 609
-107 123 610
18 108 415
18 108 416
21 122 602
22 121 591
21 111 442
16 110 431
17 123 621
17 123 619
16 123 620
16 123 620
16 123 621
17 124 624
15 123 620
16 124 623
15 124 626
13 123 620
12 123 619
12 123 622
11 123 620
12 124 623
12 124 624
10 123 620
10 123 621
10 123 621
11 124 627
11 124 628
-10 114 556
7 123 617
8 123 620
7 123 619
7 123 620
6 123 620
5 123 617
5 123 617
5 123 620
4 123 619
4 123 619
4 123 620
1 122 612
4 123 621
3 123 620
2 123 618
2 123 619
2 123 620
1 123 621
0 123 617
2 124 624
0 123 620
0 123 621
0 123 620
0 123 620
0 124 623
-4 121 609
-1 123 620
-2 123 619
-2 123 619
-2 123 620
-4 124 637
-4 124 638
-3 125 641
-4 125 639
-4 125 640
-5 125 641
-5 125 641
-4 126 647
-6 125 639
-7 124 639
-7 125 640
-7 125 640
-9 124 636
-9 124 637
-8 125 640
-9 124 639
-9 125 639
-10 125 640
-10 125 641
-10 125 642
-19 120 610
-21 120 604
-12 124 639
-12 125 640
-12 125 641
-14 124 637
-14 124 637
-14 125 640
-14 124 639
-15 125 640
-15 125 640
-15 125 641
-14 126 647
-17 124 638
-17 124 639
-15 126 649
-17 125 640
-19 124 636
-19 124 637
-18 125 640
-19 124 638
-20 124 639
-20 125 640
-20 125 641
-20 125 641
-19 126 647
-19 126 648
-24 123 629
-22 124 639
-22 125 640
-24 124 636
-24 124 637
-24 125 640
-24 124 638
-24 121 600
-24 121 600
-24 122 601
-24 122 602
-25 121 600
-26 121 599
-26 121 599
-26 121 600
-26 121 601
-28 121 597
-28 121 598
-27 121 601
-28 121 599
-28 121 600
-29 121 601
-29 122 601
-28 122 606
-30 121 601
-28 122 607
-59 107 506
-43 115 555
-32 121 597
-32 121 598
-32 121 600
-33 121 599
-33 121 600
-33 121 600
-33 121 601
-34 122 602
-34 121 600
-35 121 601
-33 122 607
-36 121 599
-36 121 600
-37 121 597
-37 121 598
-37 121 601
-38 121 599
-38 121 600
-38 121 601
-38 121 601
-38 122 602
-39 121 601
-38 122 606
-38 122 607
-43 120 591
-43 120 591
-42 121 598
-41 121 600
-42 121 601
-42 121 600
-43 121 600
-43 121 601
-43 121 602
-43 122 605
-44 121 601
-43 122 606
-43 122 607
-46 121 599
-46 121 598
-47 121 598
-46 121 601
-47 121 600
-47 121 600
-47 121 601
-48 121 601
-48 121 602
-48 122 605
-49 121 601
-48 122 607
-48 122 607
-57 117 572
-56 117 576
-53 120 591
-51 121 601
-52 121 600
-52 121 601
-52 121 601
-52 121 602
-53 121 603
-53 121 601
-54 121 602
-54 121 601
-55 121 601
-55 121 602
-56 121 599
-56 121 600
-56 121 602
-57 121 601
-57 121 602
-57 121 602
-57 121 603
-58 122 604
-58 121 602
-59 121 601
-59 121 602
-59 121 602
-60 121 603
-59 122 608
-63 120 593
-61 121 602
-61 121 602
-62 121 602
-62 121 603
-62 121 604
-62 122 604
-61 120 586
-62 120 585
-62 120 586
-63 120 587
-63 120 587
-62 121 591
-64 120 586
-64 120 587
-65 120 586
-65 120 587
-65 120 588
-65 120 588
-66 120 586
-66 120 588
-67 120 587
-67 120 587
-67 120 588
-67 121 592
-67 121 593
-81 113 552
-80 114 554
-69 120 588
-70 120 589
-70 120 589
-70 120 590
-71 120 587
-71 120 590
-72 120 589
-72 120 589
-72 120 590
-72 121 594
-72 121 594
-74 120 589
-74 120 589
-74 120 590
-74 120 591
-75 120 591
-75 120 592
-76 120 589
-76 120 592
-76 120 591
-77 120 591
-77 120 592
-76 121 596
-76 121 588
-76 121 589
-79 119 579
-80 119 579
-78 120 585
-78 120 586
-79 120 586
-80 120 584
-80 120 586
-81 120 593
-81 121 594
-82 121 594
-81 121 598
-81 121 599
-83 121 595
-82 121 600
-84 121 595
-84 121 595
-84 121 596
-85 121 597
-85 121 596
-85 121 597
-88 122 612
-88 122 613
-89 122 613
-93 125 653
-93 126 654
-95 125 649
-95 125 650
-101 122 631
-101 122 632
-97 125 650
-97 125 651
-98 125 649
-98 125 651
-98 125 650
-99 125 651
-99 125 652
-99 126 656
-99 126 656
-100 125 653
-100 125 653
-100 126 659
-102 125 653
-102 125 653
-102 125 654
-103 125 653
-103 125 655
-104 125 654
-104 125 655
-104 125 656
-104 126 659
-104 126 660
-106 125 656
-106 125 657
-105 126 662
-106 126 663
-109 124 652
-108 125 658
-109 125 657
-108 126 659
-109 125 658
-109 125 659
-110 126 660
-110 126 663
-110 126 663
-111 126 661
-111 126 662
-111 126 666
-111 127 667
-113 126 662
-103 121 598
-103 121 598
-103 121 599
-104 121 599
-104 121 600
-104 121 600
-105 121 601
-105 121 602
-106 121 602
-106 121 602
-105 122 604
-106 122 605
-106 122 606
-106 122 606
-106 122 607
18 108 414
24 122 607
20 117 541
19 110 425
18 124 638
17 124 637
16 123 617
16 123 618
17 123 621
15 123 617
15 123 620
13 124 637
12 124 636
13 124 639
12 124 637
13 125 640
12 125 641
11 124 637
11 124 638
11 123 623
11 123 624
11 124 624
-10 113 553
8 122 616
8 123 617
7 122 616
7 122 616
6 123 617
5 122 613
5 122 614
5 123 617
4 122 615
4 122 616
4 122 617
4 123 618
5 123 623
3 122 616
2 122 615
2 122 616
2 122 617
1 123 617
0 122 614
0 122 617
0 122 615
0 122 616
0 122 616
0 123 617
0 123 620
-4 121 607
-1 122 616
-2 122 616
-2 122 616
-2 122 617
-4 122 613
-4 122 614
-4 122 617
-4 122 615
-5 122 616
-5 122 617
-5 123 617
-4 123 623
-6 122 615
-7 122 615
-7 122 616
-7 122 616
-9 122 613
-9 122 613
-8 122 616
-9 122 615
-9 122 616
-10 122 616
-10 122 617
-10 123 618
-19 120 606
-21 119 601
-12 124 636
-12 124 636
-12 124 637
-14 123 633
-14 124 634
-14 124 637
-14 124 635
-15 124 636
-15 124 637
-15 124 638
-14 125 643
-16 124 635
-17 124 635
-15 125 645
-17 124 637
-19 123 633
-19 123 633
-18 124 636
-19 124 635
-19 124 636
-20 124 636
-20 124 637
-20 124 638
-19 125 643
-19 125 645
-24 122 625
-22 124 636
-22 124 637
-24 123 633
-24 123 634
-24 124 637
-24 124 635
-25 124 636
-25 124 636
-25 124 637
-25 124 638
-26 124 636
-27 124 634
-27 124 635
-27 124 636
-28 124 637
-29 123 633
-28 124 636
-29 124 637
-29 124 635
-30 124 636
-30 124 637
-30 124 637
-29 125 643
-31 124 636
-30 125 644
-61 107 526
-44 116 584
-34 123 632
-34 123 633
-34 124 636
-34 124 635
-35 124 635
-33 121 597
-33 121 598
-34 121 599
-34 121 597
-34 121 598
-33 122 604
-36 121 596
-36 121 597
-37 120 594
-37 120 595
-37 121 598
-37 121 596
-38 121 597
-38 121 598
-38 121 598
-38 121 599
-39 121 598
-38 122 603
-38 122 604
-43 119 588
-43 119 588
-42 120 595
-41 121 597
-42 121 598
-42 121 597
-42 121 597
-43 121 598
-43 121 599
-42 121 602
-44 121 598
-43 122 603
-43 122 604
-45 120 596
-46 120 595
-46 120 595
-46 121 598
-47 120 596
-47 121 597
-47 121 598
-47 121 598
-48 121 599
-48 121 598
-49 121 598
-48 121 603
-48 122 604
-57 116 569
-56 117 573
-53 119 588
-51 121 598
-52 120 597
-52 121 598
-52 121 598
-52 121 599
-53 121 600
-53 121 598
-53 121 599
-54 121 598
-54 121 598
-55 121 599
-56 120 596
-56 120 597
-56 121 599
-56 121 598
-57 121 598
-57 121 599
-57 121 600
-57 121 600
-58 121 599
-59 121 598
-59 121 599
-59 121 599
-59 121 600
-62 119 590
-62 119 591
-61 121 599
-61 121 599
-61 121 599
-62 121 600
-62 121 601
-62 121 601
-63 121 600
-63 121 599
-64 121 600
-64 121 600
-63 121 605
-64 122 605
-65 121 600
-66 121 600
-66 121 600
-66 121 601
-66 121 601
-67 121 602
-68 120 599
-68 121 601
-68 121 600
-68 121 601
-69 121 602
-68 121 606
-68 122 607
-82 114 561
-82 114 564
-71 121 601
-71 121 602
-71 121 603
-72 121 603
-71 119 584
-71 120 587
-71 119 586
-72 120 586
-72 120 587
-71 120 591
-71 120 591
-73 119 586
-74 120 586
-74 120 587
-74 120 588
-74 120 588
-75 120 589
-76 119 587
-75 120 589
-76 120 588
-76 120 588
-77 120 589
-76 120 593
-76 121 593
-76 121 594
-80 119 583
-80 119 584
-79 120 590
-79 120 591
-79 120 591
-80 120 590
-80 120 591
-81 120 590
-81 120 591
-81 120 592
-81 121 595
-81 121 596
-82 120 592
-83 120 591
-83 120 592
-84 120 592
-84 120 593
-84 120 594
-85 120 593
-85 120 594
-86 120 593
-86 120 594
-86 120 595
-86 121 598
-86 121 598
-87 120 595
-87 121 599
-93 118 583
-94 118 583
-89 120 596
-89 120 597
-90 120 597
-90 120 597
-91 120 597
-91 120 597
-91 120 598
-91 121 601
-91 121 601
-95 122 614
-95 122 615
-94 123 619
-96 122 615
-96 122 615
-97 122 616
-97 122 615
-103 125 651
-103 124 651
-103 124 651
-104 125 652
-104 125 655
-104 125 656
-105 125 653
-105 125 654
-105 125 658
-105 126 659
-109 124 648
-107 125 654
-108 124 653
-108 125 655
-109 125 655
-109 125 656
-109 125 656
-109 125 659
-109 125 660
-111 125 657
-111 125 658
-110 126 662
-111 126 663
-112 125 658
-113 125 659
-114 125 658
-113 125 660
-114 125 660
-115 125 661
-115 125 661
-115 125 662
-115 126 664
-116 125 663
-116 125 663
-116 126 667
-116 126 668
-117 126 668
-106 121 603
-91 132 659
23 110 442
25 123 623
26 125 645
17 122 615
17 122 616
17 122 617
16 122 618
15 122 614
16 124 637
18 110 427
13 123 634
12 123 632
12 123 633
12 123 634
12 124 634
11 123 633
11 123 634
12 124 639
12 124 640
12 124 641
12 125 642
11 125 642
8 123 633
8 123 634
7 123 633
8 124 636
7 123 634
5 123 630
5 123 631
6 123 634
5 123 632
4 123 633
4 123 634
4 124 635
3 123 631
3 123 633
2 122 612
2 122 613
2 122 613
0 121 610
0 121 610
0 122 613
0 122 612
0 122 613
0 122 613
0 122 614
-5 119 598
-4 120 603
-1 122 613
-2 122 612
-2 122 613
-2 122 614
-4 121 610
-4 121 611
-4 122 614
-4 122 612
-5 122 613
-5 122 614
-5 122 614
-6 122 612
-6 122 612
-7 122 612
-7 122 613
-7 122 613
-9 121 610
-9 121 610
-8 122 613
-9 121 612
-9 122 612
-10 122 613
-10 122 614
-10 122 614
-18 118 585
-20 117 580
-12 122 612
-12 122 613
-12 122 614
-14 121 610
-14 121 611
-13 122 613
-14 122 612
-14 122 613
-14 122 613
-15 122 614
-14 123 619
-16 121 611
-16 121 612
-17 122 612
-17 122 613
-18 121 609
-18 121 610
-18 122 613
-19 123 631
-19 123 632
-20 123 633
-20 123 634
-20 123 634
-19 124 640
-19 124 641
-24 122 622
-22 123 633
-22 123 633
-24 123 629
-24 123 630
-23 123 633
-24 123 632
-24 123 632
-25 123 633
-25 123 634
-25 123 635
-26 123 633
-27 123 631
-27 123 632
-27 123 632
-28 123 629
-29 123 630
-28 123 633
-29 123 633
-29 123 632
-30 123 633
-30 123 633
-30 123 634
-29 124 639
-31 123 633
-30 124 641
-61 107 524
-44 116 581
-34 123 629
-34 123 630
-33 123 633
-34 123 631
-34 123 632
-35 123 633
-35 123 633
-35 123 634
-36 123 633
-35 124 640
-35 124 640
-37 123 631
-38 123 632
-39 123 629
-39 123 630
-38 123 633
-39 123 631
-39 123 632
-40 123 633
-40 123 634
-40 123 634
-39 120 595
-38 121 600
-38 121 601
-42 119 585
-43 119 586
-41 120 592
-41 120 594
-41 120 595
-42 120 594
-42 120 594
-43 120 595
-43 120 596
-42 121 599
-44 120 595
-43 121 600
-43 121 601
-45 120 593
-46 120 592
-46 120 592
-46 120 595
-47 120 594
-47 120 594
-47 120 595
-47 120 595
-48 120 596
-48 120 595
-48 120 595
-48 121 600
-48 121 601
-57 116 567
-56 116 570
-53 119 585
-51 120 595
-51 120 594
-52 120 595
-52 120 595
-52 120 596
-52 120 597
-53 120 595
-54 120 594
-54 120 595
-54 120 595
-54 120 596
-55 120 593
-56 120 594
-56 120 596
-56 120 595
-56 120 596
-57 120 596
-57 120 597
-57 120 597
-58 120 596
-58 120 595
-59 120 596
-59 120 596
-58 121 601
-62 119 587
-62 119 588
-60 120 596
-61 120 596
-61 120 596
-61 120 597
-62 120 598
-63 120 595
-63 120 597
-63 120 596
-63 120 597
-64 120 597
-63 121 602
-65 120 595
-65 120 597
-65 120 597
-66 120 597
-66 120 598
-66 120 598
-66 120 599
-67 120 596
-67 120 598
-68 120 597
-68 120 598
-68 120 599
-68 121 603
-68 121 604
-82 113 559
-82 114 561
-70 120 598
-71 120 599
-71 120 600
-71 120 600
-72 120 598
-72 120 600
-73 120 599
-73 120 600
-73 120 600
-73 121 604
-73 121 605
-75 120 599
-75 120 599
-75 120 600
-76 120 601
-76 120 601
-76 121 602
-77 120 599
-77 120 602
-78 120 601
-76 119 586
-76 119 586
-76 120 590
-76 120 590
-76 120 591
-80 118 580
-80 118 581
-78 119 587
-79 119 588
-79 119 588
-80 119 588
-80 119 588
-80 119 587
-81 119 588
-81 119 589
-80 120 592
-81 120 593
-82 119 589
-83 119 588
-83 119 589
-83 119 590
-84 120 590
-84 120 591
-84 119 590
-85 120 591
-85 119 590
-86 120 591
-86 120 592
-85 120 595
-86 120 595
-87 120 592
-86 120 597
-93 117 580
-93 117 580
-89 120 593
-89 120 594
-89 120 594
-90 120 594
-90 120 594
-90 120 594
-91 120 595
-90 120 598
-91 120 598
-92 120 596
-91 121 600
-91 121 600
-93 120 596
-94 120 597
-94 120 597
-93 119 590
-93 120 591
-94 119 590
-94 120 591
-96 120 599
-95 121 601
-96 121 602
-97 120 600
-95 120 596
-95 120 596
-99 119 590
-99 119 590
-98 120 594
-98 120 595
-98 120 595
-99 120 595
-99 120 596
-101 121 604
-101 121 605
-101 121 606
-102 121 605
-102 121 605
-104 122 624
-104 123 624
-106 122 621
-107 122 622
-113 124 655
-113 125 657
-114 124 656
-114 124 657
-114 125 658
-115 125 659
-114 125 661
-116 125 659
-116 125 660
-115 125 663
-116 125 664
-116 126 665
-116 126 665
-75 131 627
53 114 546
26 124 641
26 124 641
20 108 419
17 123 630
17 123 633
17 123 635
16 123 630
15 123 631
18 109 425
15 122 619
11 121 609
11 121 610
11 121 610
11 121 611
10 121 610
10 121 610
11 122 616
12 124 637
12 124 637
11 124 638
-10 113 564
8 123 630
8 123 631
7 123 629
8 123 632
7 123 631
6 123 629
5 122 628
5 123 631
5 123 629
4 123 630
4 123 630
4 123 631
3 122 627
3 123 630
2 123 629
2 123 630
1 121 610
0 121 607
0 122 627
1 123 630
0 122 629
0 123 629
0 123 630
0 123 631
-3 122 622
-4 121 620
-1 123 630
-2 123 629
-2 123 630
-2 123 631
-4 122 627
-4 122 627
-4 123 630
-4 122 629
-5 121 610
-5 121 610
-5 121 611
-6 121 607
-6 121 609
-7 121 609
-7 121 609
-7 121 610
-9 121 606
-9 121 607
-8 121 610
-9 121 609
-9 121 609
-10 121 610
-10 121 611
-10 121 611
-20 116 577
-20 116 577
-12 121 609
-12 121 610
-12 121 610
-13 121 607
-14 121 607
-13 121 610
-14 121 609
-14 121 609
-14 121 610
-15 121 611
-14 122 616
-16 121 608
-16 121 609
-17 121 609
-17 121 610
-18 120 606
-18 121 607
-18 121 610
-19 121 608
-19 121 609
-19 121 610
-19 121 610
-20 121 611
-18 122 617
-19 122 617
-24 120 600
-22 121 609
-22 121 610
-23 121 606
-23 121 607
-23 121 610
-24 121 609
-24 121 609
-24 121 610
-24 121 611
-24 121 611
-25 121 610
-26 121 608
-27 122 628
-27 122 629
-28 122 626
-29 122 626
-28 122 629
-28 123 630
-29 122 628
-29 122 629
-30 123 630
-30 123 631
-29 123 636
-31 122 630
-29 124 637
-60 106 522
-32 122 629
-33 122 626
-34 122 626
-33 122 629
-34 122 628
-34 122 629
-34 122 629
-35 123 630
-35 123 631
-36 122 629
-34 123 636
-37 122 627
-37 122 628
-37 122 629
-38 122 626
-38 122 629
-38 122 630
-39 122 628
-39 122 629
-40 122 629
-40 122 630
-39 123 634
-41 122 629
-40 123 636
-40 123 637
-44 121 618
-45 121 616
-43 122 626
-43 122 629
-43 122 630
-44 122 628
-44 122 629
-45 122 630
-45 122 630
-46 122 629
-46 122 630
-45 123 636
-45 123 636
-47 122 627
-48 122 626
-48 122 626
-48 122 629
-49 122 628
-49 122 628
-49 122 629
-50 122 630
-50 122 631
-51 122 629
-48 120 592
-50 123 636
-50 123 636
-56 115 564
-56 116 568
-52 118 582
-50 119 592
-51 119 591
-51 119 592
-52 119 592
-52 120 593
-52 120 594
-53 119 592
-53 119 591
-54 119 592
-54 119 592
-54 120 593
-55 119 590
-55 119 592
-55 119 593
-56 119 592
-56 119 593
-56 119 593
-57 120 594
-58 119 591
-57 119 593
-58 119 592
-58 119 593
-59 119 593
-58 120 598
-62 118 584
-62 118 585
-60 119 593
-61 119 593
-61 119 593
-61 120 594
-61 120 595
-62 119 592
-62 120 594
-63 119 593
-63 119 594
-63 120 594
-63 120 599
-65 119 592
-65 119 594
-65 119 593
-65 119 594
-66 120 595
-66 120 595
-66 120 596
-67 120 595
-67 120 595
-68 119 594
-68 120 595
-68 120 596
-68 120 600
-68 120 600
-82 113 556
-81 113 558
-70 120 595
-70 120 596
-71 120 597
-71 120 597
-72 120 596
-72 120 597
-72 120 596
-73 120 597
-73 120 597
-72 120 601
-73 120 602
-74 119 596
-75 120 596
-75 120 597
-75 120 598
-75 120 598
-76 120 599
-76 120 598
-77 120 599
-77 120 598
-78 120 598
-78 120 599
-77 120 603
-77 121 604
-78 121 605
-81 119 592
-81 119 593
-80 120 600
-80 120 601
-81 120 601
-81 120 600
-81 120 601
-82 120 600
-82 120 601
-83 120 601
-82 121 605
-82 121 606
-84 120 602
-84 120 601
-85 120 602
-85 120 602
-85 120 603
-86 120 603
-86 120 603
-86 120 604
-87 120 603
-87 120 604
-85 119 589
-85 120 592
-85 120 592
-87 119 589
-86 120 594
-92 116 577
-93 117 578
-88 119 590
-88 119 591
-89 119 591
-89 119 591
-90 119 591
-90 119 591
-90 119 592
-90 120 595
-90 120 595
-91 119 593
-91 120 597
-91 120 597
-93 119 593
-93 119 594
-93 119 594
-94 119 595
-94 120 595
-95 119 595
-95 119 595
-95 120 596
-95 120 598
-95 120 599
-96 120 597
-96 120 600
-96 120 601
-100 119 594
-100 119 594
-98 120 599
-99 120 599
-99 120 600
-100 120 599
-100 120 600
-100 120 601
-100 120 602
-100 120 603
-100 119 594
-101 120 595
-100 120 598
-100 120 598
-102 119 596
-102 120 596
-103 119 596
-103 120 597
-105 120 604
-105 120 605
-105 120 606
-105 121 607
-106 121 608
-107 120 607
-107 120 608
-106 121 610
-107 121 611
-107 121 611
-107 121 612
-84 138 709
53 113 544
27 106 418
22 122 629
17 107 412
17 122 627
17 123 630
15 119 590
15 118 575
15 118 576
18 109 424
13 118 563
12 122 626
12 122 626
12 122 627
11 122 628
12 123 631
10 122 627
12 123 633
12 123 633
11 123 634
11 123 635
-6 115 577
7 121 607
8 122 627
7 122 626
7 122 629
7 122 627
6 122 626
6 122 627
5 122 627
5 122 626
4 122 626
4 122 627
4 122 628
2 122 624
3 122 627
2 122 626
2 122 626
2 122 627
0 122 623
0 122 624
1 122 627
0 122 625
0 122 626
0 122 627
0 122 627
-3 121 619
-4 121 617
-2 122 625
-2 122 626
-2 122 627
-2 122 627
-4 122 623
-4 120 605
-4 121 607
-4 122 626
